#!ascii version of lh.pial
10242 20480
1225 6815 6813 0
1227 6816 3146 0
1227 6817 6816 0
1227 6819 6817 0
1229 6820 3148 0
1229 6821 6820 0
1229 6823 6821 0
1231 6824 3150 0
1231 6825 6824 0
1232 6828 6826 0
1234 6829 3153 0
1234 6830 6829 0
1234 6832 6830 0
1236 6833 3155 0
1236 6834 6833 0
1237 6837 6835 0
1239 6838 3158 0
1239 6839 6838 0
1240 6842 6840 0
1242 6843 3161 0
1242 6844 6843 0
1242 6846 6844 0
1244 6847 3163 0
1244 6848 6847 0
1245 6851 6849 0
1247 6852 3166 0
1247 6853 6852 0
1248 6856 6854 0
1250 6857 3169 0
1250 6858 6857 0
1250 6860 6858 0
1252 6861 3171 0
1252 6862 6861 0
1252 6864 6862 0
1254 6865 3173 0
1254 6866 6865 0
1255 6869 6867 0
1257 6870 3176 0
1257 6871 6870 0
1257 6873 6871 0
1214 6874 3178 0
1214 6794 6874 0
1259 6877 6875 0
1261 6878 3180 0
1261 6879 6878 0
1262 6882 6880 0
1264 6883 3183 0
1264 6884 6883 0
1264 6886 6884 0
1266 6887 3185 0
1266 6888 6887 0
1267 6891 6889 0
1269 6892 3188 0
1269 6893 6892 0
1270 6896 6894 0
1272 6897 3191 0
1272 6898 6897 0
1272 6900 6898 0
1274 6901 3193 0
1274 6902 6901 0
1274 6904 6902 0
1276 6905 3195 0
1276 6906 6905 0
1277 6909 6907 0
1279 6910 3198 0
1279 6911 6910 0
1279 6913 6911 0
1281 6914 3200 0
1281 6915 6914 0
1282 6918 6916 0
1284 6919 3203 0
1284 6920 6919 0
1285 6923 6921 0
1287 6924 3206 0
1287 6925 6924 0
1287 6927 6925 0
1289 6928 3208 0
1289 6929 6928 0
1290 6932 6930 0
1292 6933 3211 0
1292 6934 6933 0
1293 6937 6935 0
1295 6938 3214 0
1295 6939 6938 0
1295 6941 6939 0
1297 6942 3216 0
1297 6943 6942 0
1297 6945 6943 0
1299 6946 3218 0
1299 6947 6946 0
1300 6950 6948 0
1302 6951 3221 0
1302 6952 6951 0
1302 6954 6952 0
1259 6955 3223 0
1259 6875 6955 0
1304 6958 6956 0
1306 6959 3225 0
1306 6960 6959 0
1307 6963 6961 0
1309 6964 3228 0
1309 6965 6964 0
1309 6967 6965 0
1311 6968 3230 0
1311 6969 6968 0
1312 6972 6970 0
1314 6973 3233 0
1314 6974 6973 0
1315 6977 6975 0
1317 6978 3236 0
1317 6979 6978 0
1317 6981 6979 0
1319 6982 3238 0
1319 6983 6982 0
1319 6985 6983 0
1321 6986 3240 0
1321 6987 6986 0
1322 6990 6988 0
1324 6991 3243 0
1324 6992 6991 0
1324 6994 6992 0
1326 6995 3245 0
1326 6996 6995 0
1327 6999 6997 0
1329 7000 3248 0
1329 7001 7000 0
1330 7004 7002 0
1332 7005 3251 0
1332 7006 7005 0
1332 7008 7006 0
1334 7009 3253 0
1334 7010 7009 0
1335 7013 7011 0
1337 7014 3256 0
1337 7015 7014 0
1338 7018 7016 0
1340 7019 3259 0
1340 7020 7019 0
1340 7022 7020 0
1342 7023 3261 0
1342 7024 7023 0
1342 7026 7024 0
1344 7027 3263 0
1344 7028 7027 0
1345 7031 7029 0
1347 7032 3266 0
1347 7033 7032 0
1347 7035 7033 0
1349 7036 3268 0
1349 7037 7036 0
1350 7040 7038 0
1352 7041 3271 0
1352 7042 7041 0
1353 7045 7043 0
1355 7046 3274 0
1355 7047 7046 0
1355 7049 7047 0
1357 7050 3276 0
1357 7051 7050 0
1358 7054 7052 0
1360 7055 3279 0
1360 7056 7055 0
1361 7059 7057 0
1363 7060 3282 0
1363 7061 7060 0
1363 7063 7061 0
1365 7064 3284 0
1365 7065 7064 0
1365 7067 7065 0
1367 7068 3286 0
1367 7069 7068 0
1368 7072 7070 0
1370 7073 3289 0
1370 7074 7073 0
1370 7076 7074 0
1372 7077 3291 0
1372 7078 7077 0
1373 7081 7079 0
1375 7082 3294 0
1375 7083 7082 0
1376 7086 7084 0
1378 7087 3297 0
1378 7088 7087 0
1378 7090 7088 0
1380 7091 3299 0
1380 7092 7091 0
1381 7095 7093 0
1383 7096 3302 0
1383 7097 7096 0
1384 7100 7098 0
1386 7101 3305 0
1386 7102 7101 0
1386 7104 7102 0
1388 7105 3307 0
1388 7106 7105 0
1388 7108 7106 0
1390 7109 3309 0
1390 7110 7109 0
1391 7113 7111 0
1393 7114 3312 0
1393 7115 7114 0
1393 7117 7115 0
1395 7118 3314 0
1395 7119 7118 0
1396 7122 7120 0
1398 7123 3317 0
1398 7124 7123 0
1399 7127 7125 0
1401 7128 3320 0
1401 7129 7128 0
1401 7131 7129 0
1403 7132 3322 0
1403 7133 7132 0
1404 7136 7134 0
1406 7137 3325 0
1406 7138 7137 0
1407 7141 7139 0
1409 7142 3328 0
1409 7143 7142 0
1409 7145 7143 0
1411 7146 3330 0
1411 7147 7146 0
1411 7149 7147 0
1413 7150 3332 0
1413 7151 7150 0
1414 7154 7152 0
1416 7155 3335 0
1416 7156 7155 0
1416 7158 7156 0
1418 7159 3337 0
1418 7160 7159 0
1419 7163 7161 0
1421 7164 3340 0
1421 7165 7164 0
1422 7168 7166 0
1424 7169 3343 0
1424 7170 7169 0
1424 7172 7170 0
1426 7173 3345 0
1426 7174 7173 0
1427 7177 7175 0
1429 7178 3348 0
1429 7179 7178 0
1430 7182 7180 0
1432 7183 3351 0
1432 7184 7183 0
1432 7186 7184 0
1434 7187 3353 0
1434 7188 7187 0
1434 7190 7188 0
1436 7191 3355 0
1436 7192 7191 0
1437 7195 7193 0
1439 7196 3358 0
1439 7197 7196 0
1439 7199 7197 0
1441 7200 3360 0
1441 7201 7200 0
1442 7204 7202 0
1444 7205 3363 0
1444 7206 7205 0
643 7207 5763 0
1445 7208 3366 0
1445 7209 7208 0
1445 7210 7209 0
1446 7211 3368 0
1446 7212 7211 0
1447 7215 7213 0
1449 7216 3371 0
1449 7217 7216 0
646 7218 5768 0
1450 7219 3374 0
1450 7220 7219 0
1450 7221 7220 0
1442 7222 3376 0
1442 7202 7222 0
1451 7225 7223 0
1453 7226 3378 0
1453 7227 7226 0
648 7228 5772 0
1454 7229 3381 0
1454 7230 7229 0
1454 7231 7230 0
1447 7232 3383 0
1447 7213 7232 0
1455 7235 7233 0
1457 7236 3385 0
1457 7237 7236 0
650 7238 5776 0
1458 7239 3388 0
1458 7240 7239 0
1458 7241 7240 0
1451 7242 3390 0
1451 7223 7242 0
1446 7244 7212 0
1460 7245 3391 0
1460 7246 7245 0
651 7247 5779 0
1461 7248 3394 0
1461 7249 7248 0
1461 7250 7249 0
1455 7251 3396 0
1455 7233 7251 0
1462 7254 7252 0
1464 7255 3398 0
1464 7256 7255 0
653 7257 5783 0
1465 7258 3401 0
1465 7259 7258 0
1465 7260 7259 0
1466 7261 3403 0
1466 7262 7261 0
1467 7265 7263 0
1469 7266 3406 0
1469 7267 7266 0
656 7268 5788 0
1470 7269 3409 0
1470 7270 7269 0
1470 7271 7270 0
1462 7272 3411 0
1462 7252 7272 0
1471 7275 7273 0
1473 7276 3413 0
1473 7277 7276 0
658 7278 5792 0
1474 7279 3416 0
1474 7280 7279 0
1474 7281 7280 0
1467 7282 3418 0
1467 7263 7282 0
1475 7285 7283 0
1477 7286 3420 0
1477 7287 7286 0
660 7288 5796 0
1478 7289 3423 0
1478 7290 7289 0
1478 7291 7290 0
1479 7292 3425 0
1479 7293 7292 0
1480 7296 7294 0
1482 7297 3428 0
1482 7298 7297 0
663 7299 5801 0
1483 7300 3431 0
1483 7301 7300 0
1483 7302 7301 0
1475 7303 3433 0
1475 7283 7303 0
1484 7306 7304 0
1486 7307 3435 0
1486 7308 7307 0
665 7309 5805 0
1487 7310 3438 0
1487 7311 7310 0
1487 7312 7311 0
1488 7313 3440 0
1488 7314 7313 0
1489 7317 7315 0
1491 7318 3443 0
1491 7319 7318 0
668 7320 5810 0
1492 7321 3446 0
1492 7322 7321 0
1492 7323 7322 0
1484 7324 3448 0
1484 7304 7324 0
1493 7327 7325 0
1495 7328 3450 0
1495 7329 7328 0
670 7330 5814 0
1496 7331 3453 0
1496 7332 7331 0
1496 7333 7332 0
1497 7334 3455 0
1497 7335 7334 0
1498 7338 7336 0
1500 7339 3458 0
1500 7340 7339 0
673 7341 5819 0
1501 7342 3461 0
1501 7343 7342 0
1501 7344 7343 0
1493 7345 3463 0
1493 7325 7345 0
1502 7348 7346 0
1504 7349 3465 0
1504 7350 7349 0
675 7351 5823 0
1505 7352 3468 0
1505 7353 7352 0
1505 7354 7353 0
1506 7355 3470 0
1506 7356 7355 0
1507 7359 7357 0
1509 7360 3473 0
1509 7361 7360 0
678 7362 5828 0
1510 7363 3476 0
1510 7364 7363 0
1510 7365 7364 0
1511 7366 3478 0
1511 7367 7366 0
1512 7370 7368 0
1514 7371 3481 0
1514 7372 7371 0
681 7373 5833 0
1515 7374 3484 0
1515 7375 7374 0
1515 7376 7375 0
1516 7377 3486 0
1516 7378 7377 0
1517 7381 7379 0
1519 7382 3489 0
1519 7383 7382 0
684 7384 5838 0
1520 7385 3492 0
1520 7386 7385 0
1520 7387 7386 0
1521 7388 3494 0
1521 7389 7388 0
1522 7392 7390 0
1524 7393 3497 0
1524 7394 7393 0
687 7395 5843 0
1525 7396 3500 0
1525 7397 7396 0
1525 7398 7397 0
1526 7399 3502 0
1526 7400 7399 0
1527 7403 7401 0
1529 7404 3505 0
1529 7405 7404 0
690 7406 5848 0
1530 7407 3508 0
1530 7408 7407 0
1530 7409 7408 0
1531 7410 3510 0
1531 7411 7410 0
1532 7414 7412 0
1534 7415 3513 0
1534 7416 7415 0
693 7417 5853 0
1535 7418 3516 0
1535 7419 7418 0
1535 7420 7419 0
1536 7421 3518 0
1536 7422 7421 0
1537 7425 7423 0
1539 7426 3521 0
1539 7427 7426 0
696 7428 5858 0
1540 7429 3524 0
1540 7430 7429 0
1540 7431 7430 0
1541 7432 3526 0
1541 7433 7432 0
1541 7435 7433 0
1543 7436 3528 0
1543 7437 7436 0
698 7438 5862 0
1544 7439 3531 0
1544 7440 7439 0
1544 7441 7440 0
1545 7442 3533 0
1545 7443 7442 0
1546 7446 7444 0
1548 7447 3536 0
1548 7448 7447 0
701 7449 5867 0
1549 7450 3539 0
1549 7451 7450 0
1549 7452 7451 0
1550 7453 3541 0
1550 7454 7453 0
1551 7457 7455 0
1553 7458 3544 0
1553 7459 7458 0
704 7460 5872 0
1554 7461 3547 0
1554 7462 7461 0
1554 7463 7462 0
1555 7464 3549 0
1555 7465 7464 0
1555 7467 7465 0
1557 7468 3551 0
1557 7469 7468 0
706 7470 5876 0
1558 7471 3554 0
1558 7472 7471 0
1558 7473 7472 0
1532 7474 3556 0
1532 7412 7474 0
1559 7477 7475 0
1561 7478 3558 0
1561 7479 7478 0
708 7480 5880 0
1562 7481 3561 0
1562 7482 7481 0
1562 7483 7482 0
1563 7484 3563 0
1563 7485 7484 0
1564 7488 7486 0
1566 7489 3566 0
1566 7490 7489 0
711 7491 5885 0
1567 7492 3569 0
1567 7493 7492 0
1567 7494 7493 0
1568 7495 3571 0
1568 7496 7495 0
1568 7498 7496 0
1570 7499 3573 0
1570 7500 7499 0
713 7501 5889 0
1571 7502 3576 0
1571 7503 7502 0
1571 7504 7503 0
1546 7505 3578 0
1546 7444 7505 0
1572 7508 7506 0
1574 7509 3580 0
1574 7510 7509 0
715 7511 5893 0
1575 7512 3583 0
1575 7513 7512 0
1575 7514 7513 0
1576 7515 3585 0
1576 7516 7515 0
1577 7519 7517 0
1579 7520 3588 0
1579 7521 7520 0
718 7522 5898 0
1580 7523 3591 0
1580 7524 7523 0
1580 7525 7524 0
1581 7526 3593 0
1581 7527 7526 0
1581 7529 7527 0
1583 7530 3595 0
1583 7531 7530 0
720 7532 5902 0
1584 7533 3598 0
1584 7534 7533 0
1584 7535 7534 0
1559 7536 3600 0
1559 7475 7536 0
1545 7538 7443 0
1586 7539 3601 0
1586 7540 7539 0
721 7541 5905 0
1587 7542 3604 0
1587 7543 7542 0
1587 7544 7543 0
1588 7545 3606 0
1588 7546 7545 0
1589 7549 7547 0
1591 7550 3609 0
1591 7551 7550 0
724 7552 5910 0
1592 7553 3612 0
1592 7554 7553 0
1592 7555 7554 0
1593 7556 3614 0
1593 7557 7556 0
1593 7559 7557 0
1595 7560 3616 0
1595 7561 7560 0
726 7562 5914 0
1596 7563 3619 0
1596 7564 7563 0
1596 7565 7564 0
1572 7566 3621 0
1572 7506 7566 0
1597 7569 7567 0
1599 7570 3623 0
1599 7571 7570 0
728 7572 5918 0
1600 7573 3626 0
1600 7574 7573 0
1600 7575 7574 0
1601 7576 3628 0
1601 7577 7576 0
1602 7580 7578 0
1604 7581 3631 0
1604 7582 7581 0
731 7583 5923 0
1605 7584 3634 0
1605 7585 7584 0
1605 7586 7585 0
1606 7587 3636 0
1606 7588 7587 0
1606 7590 7588 0
1608 7591 3638 0
1608 7592 7591 0
733 7593 5927 0
1609 7594 3641 0
1609 7595 7594 0
1609 7596 7595 0
1610 7597 3643 0
1610 7598 7597 0
1611 7601 7599 0
1613 7602 3646 0
1613 7603 7602 0
736 7604 5932 0
1614 7605 3649 0
1614 7606 7605 0
1614 7607 7606 0
1615 7608 3651 0
1615 7609 7608 0
1616 7612 7610 0
1618 7613 3654 0
1618 7614 7613 0
739 7615 5937 0
1619 7616 3657 0
1619 7617 7616 0
1619 7618 7617 0
1620 7619 3659 0
1620 7620 7619 0
1620 7622 7620 0
1622 7623 3661 0
1622 7624 7623 0
741 7625 5941 0
1623 7626 3664 0
1623 7627 7626 0
1623 7628 7627 0
1597 7629 3666 0
1597 7567 7629 0
1624 7632 7630 0
1626 7633 3668 0
1626 7634 7633 0
743 7635 5945 0
1627 7636 3671 0
1627 7637 7636 0
1627 7638 7637 0
1628 7639 3673 0
1628 7640 7639 0
1629 7643 7641 0
1631 7644 3676 0
1631 7645 7644 0
746 7646 5950 0
1632 7647 3679 0
1632 7648 7647 0
1632 7649 7648 0
1633 7650 3681 0
1633 7651 7650 0
1633 7653 7651 0
1635 7654 3683 0
1635 7655 7654 0
748 7656 5954 0
1636 7657 3686 0
1636 7658 7657 0
1636 7659 7658 0
1611 7660 3688 0
1611 7599 7660 0
1637 7663 7661 0
1639 7664 3690 0
1639 7665 7664 0
750 7666 5958 0
1640 7667 3693 0
1640 7668 7667 0
1640 7669 7668 0
1641 7670 3695 0
1641 7671 7670 0
1642 7674 7672 0
1644 7675 3698 0
1644 7676 7675 0
753 7677 5963 0
1645 7678 3701 0
1645 7679 7678 0
1645 7680 7679 0
1646 7681 3703 0
1646 7682 7681 0
1646 7684 7682 0
1648 7685 3705 0
1648 7686 7685 0
755 7687 5967 0
1649 7688 3708 0
1649 7689 7688 0
1649 7690 7689 0
1650 7691 3710 0
1650 7692 7691 0
1651 7695 7693 0
1653 7696 3713 0
1653 7697 7696 0
758 7698 5972 0
1654 7699 3716 0
1654 7700 7699 0
1654 7701 7700 0
1655 7702 3718 0
1655 7703 7702 0
1656 7706 7704 0
1658 7707 3721 0
1658 7708 7707 0
761 7709 5977 0
1659 7710 3724 0
1659 7711 7710 0
1659 7712 7711 0
1660 7713 3726 0
1660 7714 7713 0
1660 7716 7714 0
1662 7717 3728 0
1662 7718 7717 0
763 7719 5981 0
1663 7720 3731 0
1663 7721 7720 0
1663 7722 7721 0
1637 7723 3733 0
1637 7661 7723 0
1664 7726 7724 0
1666 7727 3735 0
1666 7728 7727 0
765 7729 5985 0
1667 7730 3738 0
1667 7731 7730 0
1667 7732 7731 0
1668 7733 3740 0
1668 7734 7733 0
1669 7737 7735 0
1671 7738 3743 0
1671 7739 7738 0
768 7740 5990 0
1672 7741 3746 0
1672 7742 7741 0
1672 7743 7742 0
1673 7744 3748 0
1673 7745 7744 0
1673 7747 7745 0
1675 7748 3750 0
1675 7749 7748 0
770 7750 5994 0
1676 7751 3753 0
1676 7752 7751 0
1676 7753 7752 0
1677 7754 3755 0
1677 7755 7754 0
1678 7758 7756 0
1680 7759 3758 0
1680 7760 7759 0
773 7761 5999 0
1681 7762 3761 0
1681 7763 7762 0
1681 7764 7763 0
1682 7765 3763 0
1682 7766 7765 0
1683 7769 7767 0
1685 7770 3766 0
1685 7771 7770 0
776 7772 6004 0
1686 7773 3769 0
1686 7774 7773 0
1686 7775 7774 0
1687 7776 3771 0
1687 7777 7776 0
1687 7779 7777 0
1689 7780 3773 0
1689 7781 7780 0
778 7782 6008 0
1690 7783 3776 0
1690 7784 7783 0
1690 7785 7784 0
1664 7786 3778 0
1664 7724 7786 0
1691 7789 7787 0
1693 7790 3780 0
1693 7791 7790 0
780 7792 6012 0
1694 7793 3783 0
1694 7794 7793 0
1694 7795 7794 0
1695 7796 3785 0
1695 7797 7796 0
1696 7800 7798 0
1698 7801 3788 0
1698 7802 7801 0
783 7803 6017 0
1699 7804 3791 0
1699 7805 7804 0
1699 7806 7805 0
1700 7807 3793 0
1700 7808 7807 0
1700 7810 7808 0
1702 7811 3795 0
1702 7812 7811 0
785 7813 6021 0
1703 7814 3798 0
1703 7815 7814 0
1703 7816 7815 0
1704 7817 3800 0
1704 7818 7817 0
1705 7821 7819 0
1707 7822 3803 0
1707 7823 7822 0
788 7824 6026 0
1708 7825 3806 0
1708 7826 7825 0
1708 7827 7826 0
1709 7828 3808 0
1709 7829 7828 0
1710 7832 7830 0
1712 7833 3811 0
1712 7834 7833 0
791 7835 6031 0
1713 7836 3814 0
1713 7837 7836 0
1713 7838 7837 0
1714 7839 3816 0
1714 7840 7839 0
1714 7842 7840 0
1716 7843 3818 0
1716 7844 7843 0
793 7845 6035 0
1717 7846 3821 0
1717 7847 7846 0
1717 7848 7847 0
1691 7849 3823 0
1691 7787 7849 0
1718 7852 7850 0
1720 7853 3825 0
1720 7854 7853 0
795 7855 6039 0
1721 7856 3828 0
1721 7857 7856 0
1721 7858 7857 0
1722 7859 3830 0
1722 7860 7859 0
1723 7863 7861 0
1725 7864 3833 0
1725 7865 7864 0
798 7866 6044 0
1726 7867 3836 0
1726 7868 7867 0
1726 7869 7868 0
1727 7870 3838 0
1727 7871 7870 0
1727 7873 7871 0
1729 7874 3840 0
1729 7875 7874 0
800 7876 6048 0
1730 7877 3843 0
1730 7878 7877 0
1730 7879 7878 0
1731 7880 3845 0
1731 7881 7880 0
1732 7884 7882 0
1734 7885 3848 0
1734 7886 7885 0
803 7887 6053 0
1735 7888 3851 0
1735 7889 7888 0
1735 7890 7889 0
1736 7891 3853 0
1736 7892 7891 0
1737 7895 7893 0
1739 7896 3856 0
1739 7897 7896 0
806 7898 6058 0
1740 7899 3859 0
1740 7900 7899 0
1740 7901 7900 0
1741 7902 3861 0
1741 7903 7902 0
1741 7905 7903 0
1743 7906 3863 0
1743 7907 7906 0
808 7908 6062 0
1744 7909 3866 0
1744 7910 7909 0
1744 7911 7910 0
1745 7912 3868 0
1745 7913 7912 0
1746 7916 7914 0
1748 7917 3871 0
1748 7918 7917 0
811 7919 6067 0
1749 7920 3874 0
1749 7921 7920 0
1749 7922 7921 0
1750 7923 3876 0
1750 7924 7923 0
1751 7927 7925 0
1753 7928 3879 0
1753 7929 7928 0
814 7930 6072 0
1754 7931 3882 0
1754 7932 7931 0
1754 7933 7932 0
1755 7934 3884 0
1755 7935 7934 0
1755 7937 7935 0
1757 7938 3886 0
1757 7939 7938 0
816 7940 6076 0
1758 7941 3889 0
1758 7942 7941 0
1758 7943 7942 0
1759 7944 3891 0
1759 7945 7944 0
1760 7948 7946 0
1762 7949 3894 0
1762 7950 7949 0
819 7951 6081 0
1763 7952 3897 0
1763 7953 7952 0
1763 7954 7953 0
1764 7955 3899 0
1764 7956 7955 0
1765 7959 7957 0
1767 7960 3902 0
1767 7961 7960 0
822 7962 6086 0
1768 7963 3905 0
1768 7964 7963 0
1768 7965 7964 0
1769 7966 3907 0
1769 7967 7966 0
1769 7969 7967 0
1771 7970 3909 0
1771 7971 7970 0
824 7972 6090 0
1772 7973 3912 0
1772 7974 7973 0
1772 7975 7974 0
1773 7976 3914 0
1773 7977 7976 0
1774 7980 7978 0
1776 7981 3917 0
1776 7982 7981 0
827 7983 6095 0
1777 7984 3920 0
1777 7985 7984 0
1777 7986 7985 0
1778 7987 3922 0
1778 7988 7987 0
1779 7991 7989 0
1781 7992 3925 0
1781 7993 7992 0
830 7994 6100 0
1782 7995 3928 0
1782 7996 7995 0
1782 7997 7996 0
1783 7998 3930 0
1783 7999 7998 0
1783 8001 7999 0
1785 8002 3932 0
1785 8003 8002 0
832 8004 6104 0
1786 8005 3935 0
1786 8006 8005 0
1786 8007 8006 0
1787 8008 3937 0
1787 8009 8008 0
1788 8012 8010 0
1790 8013 3940 0
1790 8014 8013 0
835 8015 6109 0
1791 8016 3943 0
1791 8017 8016 0
1791 8018 8017 0
1792 8019 3945 0
1792 8020 8019 0
1793 8023 8021 0
1795 8024 3948 0
1795 8025 8024 0
838 8026 6114 0
1796 8027 3951 0
1796 8028 8027 0
1796 8029 8028 0
1797 8030 3953 0
1797 8031 8030 0
1797 8033 8031 0
1799 8034 3955 0
1799 8035 8034 0
840 8036 6118 0
1800 8037 3958 0
1800 8038 8037 0
1800 8039 8038 0
1801 8040 3960 0
1801 8041 8040 0
1802 8044 8042 0
1804 8045 3963 0
1804 8046 8045 0
843 8047 6123 0
1805 8048 3966 0
1805 8049 8048 0
1805 8050 8049 0
1806 8051 3968 0
1806 8052 8051 0
1443 8053 7203 0
1807 8054 3971 0
1807 8055 8054 0
846 8056 6128 0
1808 8057 3974 0
1808 8058 8057 0
1808 8059 8058 0
1809 8060 3976 0
1809 8061 8060 0
1809 8062 8061 0
1810 8063 3978 0
1810 8064 8063 0
848 8065 6132 0
1811 8066 3981 0
1811 8067 8066 0
1811 8068 8067 0
1812 8069 3983 0
1812 8070 8069 0
1813 8073 8071 0
1815 8074 3986 0
1815 8075 8074 0
851 8076 6137 0
1816 8077 3989 0
1816 8078 8077 0
1816 8079 8078 0
1817 8080 3991 0
1817 8081 8080 0
1448 8082 7214 0
1818 8083 3994 0
1818 8084 8083 0
854 8085 6142 0
1819 8086 3997 0
1819 8087 8086 0
1819 8088 8087 0
1820 8089 3999 0
1820 8090 8089 0
1820 8091 8090 0
1821 8092 4001 0
1821 8093 8092 0
856 8094 6146 0
1822 8095 4004 0
1822 8096 8095 0
1822 8097 8096 0
1802 8098 4006 0
1802 8042 8098 0
1823 8101 8099 0
1825 8102 4008 0
1825 8103 8102 0
858 8104 6150 0
1826 8105 4011 0
1826 8106 8105 0
1826 8107 8106 0
1827 8108 4013 0
1827 8109 8108 0
1452 8110 7224 0
1828 8111 4016 0
1828 8112 8111 0
861 8113 6155 0
1829 8114 4019 0
1829 8115 8114 0
1829 8116 8115 0
1830 8117 4021 0
1830 8118 8117 0
1830 8119 8118 0
1831 8120 4023 0
1831 8121 8120 0
863 8122 6159 0
1832 8123 4026 0
1832 8124 8123 0
1832 8125 8124 0
1813 8126 4028 0
1813 8071 8126 0
1833 8129 8127 0
1835 8130 4030 0
1835 8131 8130 0
865 8132 6163 0
1836 8133 4033 0
1836 8134 8133 0
1836 8135 8134 0
1837 8136 4035 0
1837 8137 8136 0
1456 8138 7234 0
1838 8139 4038 0
1838 8140 8139 0
868 8141 6168 0
1839 8142 4041 0
1839 8143 8142 0
1839 8144 8143 0
1840 8145 4043 0
1840 8146 8145 0
1840 8147 8146 0
1841 8148 4045 0
1841 8149 8148 0
870 8150 6172 0
1842 8151 4048 0
1842 8152 8151 0
1842 8153 8152 0
1823 8154 4050 0
1823 8099 8154 0
1812 8156 8070 0
1844 8157 4051 0
1844 8158 8157 0
871 8159 6175 0
1845 8160 4054 0
1845 8161 8160 0
1845 8162 8161 0
1846 8163 4056 0
1846 8164 8163 0
1459 8165 7243 0
1847 8166 4059 0
1847 8167 8166 0
874 8168 6180 0
1848 8169 4062 0
1848 8170 8169 0
1848 8171 8170 0
1849 8172 4064 0
1849 8173 8172 0
1849 8174 8173 0
1850 8175 4066 0
1850 8176 8175 0
876 8177 6184 0
1851 8178 4069 0
1851 8179 8178 0
1851 8180 8179 0
1833 8181 4071 0
1833 8127 8181 0
1852 8184 8182 0
1854 8185 4073 0
1854 8186 8185 0
878 8187 6188 0
1855 8188 4076 0
1855 8189 8188 0
1855 8190 8189 0
1856 8191 4078 0
1856 8192 8191 0
1463 8193 7253 0
1857 8194 4081 0
1857 8195 8194 0
881 8196 6193 0
1858 8197 4084 0
1858 8198 8197 0
1858 8199 8198 0
1859 8200 4086 0
1859 8201 8200 0
1859 8202 8201 0
1860 8203 4088 0
1860 8204 8203 0
883 8205 6197 0
1861 8206 4091 0
1861 8207 8206 0
1861 8208 8207 0
1862 8209 4093 0
1862 8210 8209 0
1863 8213 8211 0
1865 8214 4096 0
1865 8215 8214 0
886 8216 6202 0
1866 8217 4099 0
1866 8218 8217 0
1866 8219 8218 0
1867 8220 4101 0
1867 8221 8220 0
1468 8222 7264 0
1868 8223 4104 0
1868 8224 8223 0
889 8225 6207 0
1869 8226 4107 0
1869 8227 8226 0
1869 8228 8227 0
1870 8229 4109 0
1870 8230 8229 0
1870 8231 8230 0
1871 8232 4111 0
1871 8233 8232 0
891 8234 6211 0
1872 8235 4114 0
1872 8236 8235 0
1872 8237 8236 0
1852 8238 4116 0
1852 8182 8238 0
1873 8241 8239 0
1875 8242 4118 0
1875 8243 8242 0
893 8244 6215 0
1876 8245 4121 0
1876 8246 8245 0
1876 8247 8246 0
1877 8248 4123 0
1877 8249 8248 0
1472 8250 7274 0
1878 8251 4126 0
1878 8252 8251 0
896 8253 6220 0
1879 8254 4129 0
1879 8255 8254 0
1879 8256 8255 0
1880 8257 4131 0
1880 8258 8257 0
1880 8259 8258 0
1881 8260 4133 0
1881 8261 8260 0
898 8262 6224 0
1882 8263 4136 0
1882 8264 8263 0
1882 8265 8264 0
1863 8266 4138 0
1863 8211 8266 0
1883 8269 8267 0
1885 8270 4140 0
1885 8271 8270 0
900 8272 6228 0
1886 8273 4143 0
1886 8274 8273 0
1886 8275 8274 0
1887 8276 4145 0
1887 8277 8276 0
1476 8278 7284 0
1888 8279 4148 0
1888 8280 8279 0
903 8281 6233 0
1889 8282 4151 0
1889 8283 8282 0
1889 8284 8283 0
1890 8285 4153 0
1890 8286 8285 0
1890 8287 8286 0
1891 8288 4155 0
1891 8289 8288 0
905 8290 6237 0
1892 8291 4158 0
1892 8292 8291 0
1892 8293 8292 0
1893 8294 4160 0
1893 8295 8294 0
1894 8298 8296 0
1896 8299 4163 0
1896 8300 8299 0
908 8301 6242 0
1897 8302 4166 0
1897 8303 8302 0
1897 8304 8303 0
1898 8305 4168 0
1898 8306 8305 0
1481 8307 7295 0
1899 8308 4171 0
1899 8309 8308 0
911 8310 6247 0
1900 8311 4174 0
1900 8312 8311 0
1900 8313 8312 0
1901 8314 4176 0
1901 8315 8314 0
1901 8316 8315 0
1902 8317 4178 0
1902 8318 8317 0
913 8319 6251 0
1903 8320 4181 0
1903 8321 8320 0
1903 8322 8321 0
1883 8323 4183 0
1883 8267 8323 0
1904 8326 8324 0
1906 8327 4185 0
1906 8328 8327 0
915 8329 6255 0
1907 8330 4188 0
1907 8331 8330 0
1907 8332 8331 0
1908 8333 4190 0
1908 8334 8333 0
1485 8335 7305 0
1909 8336 4193 0
1909 8337 8336 0
918 8338 6260 0
1910 8339 4196 0
1910 8340 8339 0
1910 8341 8340 0
1911 8342 4198 0
1911 8343 8342 0
1911 8344 8343 0
1912 8345 4200 0
1912 8346 8345 0
920 8347 6264 0
1913 8348 4203 0
1913 8349 8348 0
1913 8350 8349 0
1914 8351 4205 0
1914 8352 8351 0
1915 8355 8353 0
1917 8356 4208 0
1917 8357 8356 0
923 8358 6269 0
1918 8359 4211 0
1918 8360 8359 0
1918 8361 8360 0
1919 8362 4213 0
1919 8363 8362 0
1490 8364 7316 0
1920 8365 4216 0
1920 8366 8365 0
926 8367 6274 0
1921 8368 4219 0
1921 8369 8368 0
1921 8370 8369 0
1922 8371 4221 0
1922 8372 8371 0
1922 8373 8372 0
1923 8374 4223 0
1923 8375 8374 0
928 8376 6278 0
1924 8377 4226 0
1924 8378 8377 0
1924 8379 8378 0
1904 8380 4228 0
1904 8324 8380 0
1925 8383 8381 0
1927 8384 4230 0
1927 8385 8384 0
930 8386 6282 0
1928 8387 4233 0
1928 8388 8387 0
1928 8389 8388 0
1929 8390 4235 0
1929 8391 8390 0
1494 8392 7326 0
1930 8393 4238 0
1930 8394 8393 0
933 8395 6287 0
1931 8396 4241 0
1931 8397 8396 0
1931 8398 8397 0
1932 8399 4243 0
1932 8400 8399 0
1932 8401 8400 0
1933 8402 4245 0
1933 8403 8402 0
935 8404 6291 0
1934 8405 4248 0
1934 8406 8405 0
1934 8407 8406 0
1935 8408 4250 0
1935 8409 8408 0
1936 8412 8410 0
1938 8413 4253 0
1938 8414 8413 0
938 8415 6296 0
1939 8416 4256 0
1939 8417 8416 0
1939 8418 8417 0
1940 8419 4258 0
1940 8420 8419 0
1499 8421 7337 0
1941 8422 4261 0
1941 8423 8422 0
941 8424 6301 0
1942 8425 4264 0
1942 8426 8425 0
1942 8427 8426 0
1943 8428 4266 0
1943 8429 8428 0
1943 8430 8429 0
1944 8431 4268 0
1944 8432 8431 0
943 8433 6305 0
1945 8434 4271 0
1945 8435 8434 0
1945 8436 8435 0
1925 8437 4273 0
1925 8381 8437 0
1946 8440 8438 0
1948 8441 4275 0
1948 8442 8441 0
945 8443 6309 0
1949 8444 4278 0
1949 8445 8444 0
1949 8446 8445 0
1950 8447 4280 0
1950 8448 8447 0
1503 8449 7347 0
1951 8450 4283 0
1951 8451 8450 0
948 8452 6314 0
1952 8453 4286 0
1952 8454 8453 0
1952 8455 8454 0
1953 8456 4288 0
1953 8457 8456 0
1953 8458 8457 0
1954 8459 4290 0
1954 8460 8459 0
950 8461 6318 0
1955 8462 4293 0
1955 8463 8462 0
1955 8464 8463 0
1956 8465 4295 0
1956 8466 8465 0
1957 8469 8467 0
1959 8470 4298 0
1959 8471 8470 0
953 8472 6323 0
1960 8473 4301 0
1960 8474 8473 0
1960 8475 8474 0
1961 8476 4303 0
1961 8477 8476 0
1508 8478 7358 0
1962 8479 4306 0
1962 8480 8479 0
956 8481 6328 0
1963 8482 4309 0
1963 8483 8482 0
1963 8484 8483 0
1964 8485 4311 0
1964 8486 8485 0
1964 8487 8486 0
1965 8488 4313 0
1965 8489 8488 0
958 8490 6332 0
1966 8491 4316 0
1966 8492 8491 0
1966 8493 8492 0
1967 8494 4318 0
1967 8495 8494 0
1968 8498 8496 0
1970 8499 4321 0
1970 8500 8499 0
961 8501 6337 0
1971 8502 4324 0
1971 8503 8502 0
1971 8504 8503 0
1972 8505 4326 0
1972 8506 8505 0
1513 8507 7369 0
1973 8508 4329 0
1973 8509 8508 0
964 8510 6342 0
1974 8511 4332 0
1974 8512 8511 0
1974 8513 8512 0
1975 8514 4334 0
1975 8515 8514 0
1975 8516 8515 0
1976 8517 4336 0
1976 8518 8517 0
966 8519 6346 0
1977 8520 4339 0
1977 8521 8520 0
1977 8522 8521 0
1978 8523 4341 0
1978 8524 8523 0
1979 8527 8525 0
1981 8528 4344 0
1981 8529 8528 0
969 8530 6351 0
1982 8531 4347 0
1982 8532 8531 0
1982 8533 8532 0
1983 8534 4349 0
1983 8535 8534 0
1518 8536 7380 0
1984 8537 4352 0
1984 8538 8537 0
972 8539 6356 0
1985 8540 4355 0
1985 8541 8540 0
1985 8542 8541 0
1986 8543 4357 0
1986 8544 8543 0
1986 8545 8544 0
1987 8546 4359 0
1987 8547 8546 0
974 8548 6360 0
1988 8549 4362 0
1988 8550 8549 0
1988 8551 8550 0
1989 8552 4364 0
1989 8553 8552 0
1990 8556 8554 0
1992 8557 4367 0
1992 8558 8557 0
977 8559 6365 0
1993 8560 4370 0
1993 8561 8560 0
1993 8562 8561 0
1994 8563 4372 0
1994 8564 8563 0
1523 8565 7391 0
1995 8566 4375 0
1995 8567 8566 0
980 8568 6370 0
1996 8569 4378 0
1996 8570 8569 0
1996 8571 8570 0
1997 8572 4380 0
1997 8573 8572 0
1997 8574 8573 0
1998 8575 4382 0
1998 8576 8575 0
982 8577 6374 0
1999 8578 4385 0
1999 8579 8578 0
1999 8580 8579 0
2000 8581 4387 0
2000 8582 8581 0
2001 8585 8583 0
2003 8586 4390 0
2003 8587 8586 0
985 8588 6379 0
2004 8589 4393 0
2004 8590 8589 0
2004 8591 8590 0
2005 8592 4395 0
2005 8593 8592 0
1528 8594 7402 0
2006 8595 4398 0
2006 8596 8595 0
988 8597 6384 0
2007 8598 4401 0
2007 8599 8598 0
2007 8600 8599 0
2008 8601 4403 0
2008 8602 8601 0
2008 8603 8602 0
2009 8604 4405 0
2009 8605 8604 0
990 8606 6388 0
2010 8607 4408 0
2010 8608 8607 0
2010 8609 8608 0
2011 8610 4410 0
2011 8611 8610 0
2012 8614 8612 0
2014 8615 4413 0
2014 8616 8615 0
993 8617 6393 0
2015 8618 4416 0
2015 8619 8618 0
2015 8620 8619 0
2016 8621 4418 0
2016 8622 8621 0
1533 8623 7413 0
2017 8624 4421 0
2017 8625 8624 0
996 8626 6398 0
2018 8627 4424 0
2018 8628 8627 0
2018 8629 8628 0
2019 8630 4426 0
2019 8631 8630 0
2019 8632 8631 0
2020 8633 4428 0
2020 8634 8633 0
998 8635 6402 0
2021 8636 4431 0
2021 8637 8636 0
2021 8638 8637 0
2022 8639 4433 0
2022 8640 8639 0
1803 8641 8043 0
2023 8642 4436 0
2023 8643 8642 0
1001 8644 6407 0
2024 8645 4439 0
2024 8646 8645 0
2024 8647 8646 0
2025 8648 4441 0
2025 8649 8648 0
1538 8650 7424 0
2026 8651 4444 0
2026 8652 8651 0
1004 8653 6412 0
2027 8654 4447 0
2027 8655 8654 0
2027 8656 8655 0
2028 8657 4449 0
2028 8658 8657 0
2028 8659 8658 0
2029 8660 4451 0
2029 8661 8660 0
1006 8662 6416 0
2030 8663 4454 0
2030 8664 8663 0
2030 8665 8664 0
2031 8666 4456 0
2031 8667 8666 0
2031 8668 8667 0
2032 8669 4458 0
2032 8670 8669 0
1008 8671 6420 0
2033 8672 4461 0
2033 8673 8672 0
2033 8674 8673 0
2034 8675 4463 0
2034 8676 8675 0
1542 8677 7434 0
2035 8678 4466 0
2035 8679 8678 0
1011 8680 6425 0
2036 8681 4469 0
2036 8682 8681 0
2036 8683 8682 0
2037 8684 4471 0
2037 8685 8684 0
2037 8686 8685 0
2038 8687 4473 0
2038 8688 8687 0
1013 8689 6429 0
2039 8690 4476 0
2039 8691 8690 0
2039 8692 8691 0
2040 8693 4478 0
2040 8694 8693 0
2041 8697 8695 0
2043 8698 4481 0
2043 8699 8698 0
1016 8700 6434 0
2044 8701 4484 0
2044 8702 8701 0
2044 8703 8702 0
2045 8704 4486 0
2045 8705 8704 0
1547 8706 7445 0
2046 8707 4489 0
2046 8708 8707 0
1019 8709 6439 0
2047 8710 4492 0
2047 8711 8710 0
2047 8712 8711 0
2048 8713 4494 0
2048 8714 8713 0
2048 8715 8714 0
2049 8716 4496 0
2049 8717 8716 0
1021 8718 6443 0
2050 8719 4499 0
2050 8720 8719 0
2050 8721 8720 0
2051 8722 4501 0
2051 8723 8722 0
1814 8724 8072 0
2052 8725 4504 0
2052 8726 8725 0
1024 8727 6448 0
2053 8728 4507 0
2053 8729 8728 0
2053 8730 8729 0
2054 8731 4509 0
2054 8732 8731 0
1552 8733 7456 0
2055 8734 4512 0
2055 8735 8734 0
1027 8736 6453 0
2056 8737 4515 0
2056 8738 8737 0
2056 8739 8738 0
2057 8740 4517 0
2057 8741 8740 0
2057 8742 8741 0
2058 8743 4519 0
2058 8744 8743 0
1029 8745 6457 0
2059 8746 4522 0
2059 8747 8746 0
2059 8748 8747 0
2060 8749 4524 0
2060 8750 8749 0
2060 8751 8750 0
2061 8752 4526 0
2061 8753 8752 0
1031 8754 6461 0
2062 8755 4529 0
2062 8756 8755 0
2062 8757 8756 0
2063 8758 4531 0
2063 8759 8758 0
1556 8760 7466 0
2064 8761 4534 0
2064 8762 8761 0
1034 8763 6466 0
2065 8764 4537 0
2065 8765 8764 0
2065 8766 8765 0
2066 8767 4539 0
2066 8768 8767 0
2066 8769 8768 0
2067 8770 4541 0
2067 8771 8770 0
1036 8772 6470 0
2068 8773 4544 0
2068 8774 8773 0
2068 8775 8774 0
2012 8776 4546 0
2012 8612 8776 0
2069 8779 8777 0
2071 8780 4548 0
2071 8781 8780 0
1038 8782 6474 0
2072 8783 4551 0
2072 8784 8783 0
2072 8785 8784 0
2073 8786 4553 0
2073 8787 8786 0
1560 8788 7476 0
2074 8789 4556 0
2074 8790 8789 0
1041 8791 6479 0
2075 8792 4559 0
2075 8793 8792 0
2075 8794 8793 0
2076 8795 4561 0
2076 8796 8795 0
2076 8797 8796 0
2077 8798 4563 0
2077 8799 8798 0
1043 8800 6483 0
2078 8801 4566 0
2078 8802 8801 0
2078 8803 8802 0
2079 8804 4568 0
2079 8805 8804 0
1824 8806 8100 0
2080 8807 4571 0
2080 8808 8807 0
1046 8809 6488 0
2081 8810 4574 0
2081 8811 8810 0
2081 8812 8811 0
2082 8813 4576 0
2082 8814 8813 0
1565 8815 7487 0
2083 8816 4579 0
2083 8817 8816 0
1049 8818 6493 0
2084 8819 4582 0
2084 8820 8819 0
2084 8821 8820 0
2085 8822 4584 0
2085 8823 8822 0
2085 8824 8823 0
2086 8825 4586 0
2086 8826 8825 0
1051 8827 6497 0
2087 8828 4589 0
2087 8829 8828 0
2087 8830 8829 0
2088 8831 4591 0
2088 8832 8831 0
2088 8833 8832 0
2089 8834 4593 0
2089 8835 8834 0
1053 8836 6501 0
2090 8837 4596 0
2090 8838 8837 0
2090 8839 8838 0
2091 8840 4598 0
2091 8841 8840 0
1569 8842 7497 0
2092 8843 4601 0
2092 8844 8843 0
1056 8845 6506 0
2093 8846 4604 0
2093 8847 8846 0
2093 8848 8847 0
2094 8849 4606 0
2094 8850 8849 0
2094 8851 8850 0
2095 8852 4608 0
2095 8853 8852 0
1058 8854 6510 0
2096 8855 4611 0
2096 8856 8855 0
2096 8857 8856 0
2041 8858 4613 0
2041 8695 8858 0
2097 8861 8859 0
2099 8862 4615 0
2099 8863 8862 0
1060 8864 6514 0
2100 8865 4618 0
2100 8866 8865 0
2100 8867 8866 0
2101 8868 4620 0
2101 8869 8868 0
1573 8870 7507 0
2102 8871 4623 0
2102 8872 8871 0
1063 8873 6519 0
2103 8874 4626 0
2103 8875 8874 0
2103 8876 8875 0
2104 8877 4628 0
2104 8878 8877 0
2104 8879 8878 0
2105 8880 4630 0
2105 8881 8880 0
1065 8882 6523 0
2106 8883 4633 0
2106 8884 8883 0
2106 8885 8884 0
2107 8886 4635 0
2107 8887 8886 0
1834 8888 8128 0
2108 8889 4638 0
2108 8890 8889 0
1068 8891 6528 0
2109 8892 4641 0
2109 8893 8892 0
2109 8894 8893 0
2110 8895 4643 0
2110 8896 8895 0
1578 8897 7518 0
2111 8898 4646 0
2111 8899 8898 0
1071 8900 6533 0
2112 8901 4649 0
2112 8902 8901 0
2112 8903 8902 0
2113 8904 4651 0
2113 8905 8904 0
2113 8906 8905 0
2114 8907 4653 0
2114 8908 8907 0
1073 8909 6537 0
2115 8910 4656 0
2115 8911 8910 0
2115 8912 8911 0
2116 8913 4658 0
2116 8914 8913 0
2116 8915 8914 0
2117 8916 4660 0
2117 8917 8916 0
1075 8918 6541 0
2118 8919 4663 0
2118 8920 8919 0
2118 8921 8920 0
2119 8922 4665 0
2119 8923 8922 0
1582 8924 7528 0
2120 8925 4668 0
2120 8926 8925 0
1078 8927 6546 0
2121 8928 4671 0
2121 8929 8928 0
2121 8930 8929 0
2122 8931 4673 0
2122 8932 8931 0
2122 8933 8932 0
2123 8934 4675 0
2123 8935 8934 0
1080 8936 6550 0
2124 8937 4678 0
2124 8938 8937 0
2124 8939 8938 0
2069 8940 4680 0
2069 8777 8940 0
2040 8941 8694 0
2125 8942 4681 0
2125 8943 8942 0
1081 8944 6553 0
2126 8945 4684 0
2126 8946 8945 0
2126 8947 8946 0
2127 8948 4686 0
2127 8949 8948 0
1585 8950 7537 0
2128 8951 4689 0
2128 8952 8951 0
1084 8953 6558 0
2129 8954 4692 0
2129 8955 8954 0
2129 8956 8955 0
2130 8957 4694 0
2130 8958 8957 0
2130 8959 8958 0
2131 8960 4696 0
2131 8961 8960 0
1086 8962 6562 0
2132 8963 4699 0
2132 8964 8963 0
2132 8965 8964 0
2133 8966 4701 0
2133 8967 8966 0
1843 8968 8155 0
2134 8969 4704 0
2134 8970 8969 0
1089 8971 6567 0
2135 8972 4707 0
2135 8973 8972 0
2135 8974 8973 0
2136 8975 4709 0
2136 8976 8975 0
1590 8977 7548 0
2137 8978 4712 0
2137 8979 8978 0
1092 8980 6572 0
2138 8981 4715 0
2138 8982 8981 0
2138 8983 8982 0
2139 8984 4717 0
2139 8985 8984 0
2139 8986 8985 0
2140 8987 4719 0
2140 8988 8987 0
1094 8989 6576 0
2141 8990 4722 0
2141 8991 8990 0
2141 8992 8991 0
2142 8993 4724 0
2142 8994 8993 0
2142 8995 8994 0
2143 8996 4726 0
2143 8997 8996 0
1096 8998 6580 0
2144 8999 4729 0
2144 9000 8999 0
2144 9001 9000 0
2145 9002 4731 0
2145 9003 9002 0
1594 9004 7558 0
2146 9005 4734 0
2146 9006 9005 0
1099 9007 6585 0
2147 9008 4737 0
2147 9009 9008 0
2147 9010 9009 0
2148 9011 4739 0
2148 9012 9011 0
2148 9013 9012 0
2149 9014 4741 0
2149 9015 9014 0
1101 9016 6589 0
2150 9017 4744 0
2150 9018 9017 0
2150 9019 9018 0
2097 9020 4746 0
2097 8859 9020 0
2152 9024 9022 0
2154 9025 4748 0
2154 9026 9025 0
1103 9027 6593 0
2155 9028 4751 0
2155 9029 9028 0
2155 9030 9029 0
2156 9031 4753 0
2156 9032 9031 0
1598 9033 7568 0
2157 9034 4756 0
2157 9035 9034 0
1106 9036 6598 0
2158 9037 4759 0
2158 9038 9037 0
2158 9039 9038 0
2159 9040 4761 0
2159 9041 9040 0
2159 9042 9041 0
2160 9043 4763 0
2160 9044 9043 0
1108 9045 6602 0
2161 9046 4766 0
2161 9047 9046 0
2161 9048 9047 0
2162 9049 4768 0
2162 9050 9049 0
1853 9051 8183 0
2163 9052 4771 0
2163 9053 9052 0
1111 9054 6607 0
2164 9055 4774 0
2164 9056 9055 0
2164 9057 9056 0
2165 9058 4776 0
2165 9059 9058 0
1603 9060 7579 0
2166 9061 4779 0
2166 9062 9061 0
1114 9063 6612 0
2167 9064 4782 0
2167 9065 9064 0
2167 9066 9065 0
2168 9067 4784 0
2168 9068 9067 0
2168 9069 9068 0
2169 9070 4786 0
2169 9071 9070 0
1116 9072 6616 0
2170 9073 4789 0
2170 9074 9073 0
2170 9075 9074 0
2171 9076 4791 0
2171 9077 9076 0
2171 9078 9077 0
2172 9079 4793 0
2172 9080 9079 0
1118 9081 6620 0
2173 9082 4796 0
2173 9083 9082 0
2173 9084 9083 0
2174 9085 4798 0
2174 9086 9085 0
1607 9087 7589 0
2175 9088 4801 0
2175 9089 9088 0
1121 9090 6625 0
2176 9091 4804 0
2176 9092 9091 0
2176 9093 9092 0
2177 9094 4806 0
2177 9095 9094 0
2177 9096 9095 0
2178 9097 4808 0
2178 9098 9097 0
1123 9099 6629 0
2179 9100 4811 0
2179 9101 9100 0
2179 9102 9101 0
2151 9103 4813 0
2151 9021 9103 0
2180 9106 9104 0
2182 9107 4816 0
2182 9108 9107 0
1126 9109 6634 0
2183 9110 4819 0
2183 9111 9110 0
2183 9112 9111 0
2184 9113 4821 0
2184 9114 9113 0
1612 9115 7600 0
2185 9116 4824 0
2185 9117 9116 0
1129 9118 6639 0
2186 9119 4827 0
2186 9120 9119 0
2186 9121 9120 0
2187 9122 4829 0
2187 9123 9122 0
2187 9124 9123 0
2188 9125 4831 0
2188 9126 9125 0
1131 9127 6643 0
2189 9128 4834 0
2189 9129 9128 0
2189 9130 9129 0
2190 9131 4836 0
2190 9132 9131 0
1864 9133 8212 0
2191 9134 4839 0
2191 9135 9134 0
1134 9136 6648 0
2192 9137 4842 0
2192 9138 9137 0
2192 9139 9138 0
2193 9140 4844 0
2193 9141 9140 0
1617 9142 7611 0
2194 9143 4847 0
2194 9144 9143 0
1137 9145 6653 0
2195 9146 4850 0
2195 9147 9146 0
2195 9148 9147 0
2196 9149 4852 0
2196 9150 9149 0
2196 9151 9150 0
2197 9152 4854 0
2197 9153 9152 0
1139 9154 6657 0
2198 9155 4857 0
2198 9156 9155 0
2198 9157 9156 0
2199 9158 4859 0
2199 9159 9158 0
2199 9160 9159 0
2200 9161 4861 0
2200 9162 9161 0
1141 9163 6661 0
2201 9164 4864 0
2201 9165 9164 0
2201 9166 9165 0
2202 9167 4866 0
2202 9168 9167 0
1621 9169 7621 0
2203 9170 4869 0
2203 9171 9170 0
1144 9172 6666 0
2204 9173 4872 0
2204 9174 9173 0
2204 9175 9174 0
2205 9176 4874 0
2205 9177 9176 0
2205 9178 9177 0
2206 9179 4876 0
2206 9180 9179 0
1146 9181 6670 0
2207 9182 4879 0
2207 9183 9182 0
2207 9184 9183 0
2152 9185 4881 0
2152 9022 9185 0
2013 9186 8613 0
2208 9187 4883 0
2208 9188 9187 0
1148 9189 6674 0
2209 9190 4886 0
2209 9191 9190 0
2209 9192 9191 0
2210 9193 4888 0
2210 9194 9193 0
1625 9195 7631 0
2211 9196 4891 0
2211 9197 9196 0
1151 9198 6679 0
2212 9199 4894 0
2212 9200 9199 0
2212 9201 9200 0
2213 9202 4896 0
2213 9203 9202 0
2213 9204 9203 0
2214 9205 4898 0
2214 9206 9205 0
1153 9207 6683 0
2215 9208 4901 0
2215 9209 9208 0
2215 9210 9209 0
2216 9211 4903 0
2216 9212 9211 0
1874 9213 8240 0
2217 9214 4906 0
2217 9215 9214 0
1156 9216 6688 0
2218 9217 4909 0
2218 9218 9217 0
2218 9219 9218 0
2219 9220 4911 0
2219 9221 9220 0
1630 9222 7642 0
2220 9223 4914 0
2220 9224 9223 0
1159 9225 6693 0
2221 9226 4917 0
2221 9227 9226 0
2221 9228 9227 0
2222 9229 4919 0
2222 9230 9229 0
2222 9231 9230 0
2223 9232 4921 0
2223 9233 9232 0
1161 9234 6697 0
2224 9235 4924 0
2224 9236 9235 0
2224 9237 9236 0
2225 9238 4926 0
2225 9239 9238 0
2225 9240 9239 0
2226 9241 4928 0
2226 9242 9241 0
1163 9243 6701 0
2227 9244 4931 0
2227 9245 9244 0
2227 9246 9245 0
2228 9247 4933 0
2228 9248 9247 0
1634 9249 7652 0
2229 9250 4936 0
2229 9251 9250 0
1166 9252 6706 0
2230 9253 4939 0
2230 9254 9253 0
2230 9255 9254 0
2231 9256 4941 0
2231 9257 9256 0
2231 9258 9257 0
2232 9259 4943 0
2232 9260 9259 0
1168 9261 6710 0
2233 9262 4946 0
2233 9263 9262 0
2233 9264 9263 0
2180 9265 4948 0
2180 9104 9265 0
2235 9269 9267 0
2237 9270 4950 0
2237 9271 9270 0
1170 9272 6714 0
2238 9273 4953 0
2238 9274 9273 0
2238 9275 9274 0
2239 9276 4955 0
2239 9277 9276 0
1638 9278 7662 0
2240 9279 4958 0
2240 9280 9279 0
1173 9281 6719 0
2241 9282 4961 0
2241 9283 9282 0
2241 9284 9283 0
2242 9285 4963 0
2242 9286 9285 0
2242 9287 9286 0
2243 9288 4965 0
2243 9289 9288 0
1175 9290 6723 0
2244 9291 4968 0
2244 9292 9291 0
2244 9293 9292 0
2245 9294 4970 0
2245 9295 9294 0
1884 9296 8268 0
2246 9297 4973 0
2246 9298 9297 0
1178 9299 6728 0
2247 9300 4976 0
2247 9301 9300 0
2247 9302 9301 0
2248 9303 4978 0
2248 9304 9303 0
1643 9305 7673 0
2249 9306 4981 0
2249 9307 9306 0
1181 9308 6733 0
2250 9309 4984 0
2250 9310 9309 0
2250 9311 9310 0
2251 9312 4986 0
2251 9313 9312 0
2251 9314 9313 0
2252 9315 4988 0
2252 9316 9315 0
1183 9317 6737 0
2253 9318 4991 0
2253 9319 9318 0
2253 9320 9319 0
2254 9321 4993 0
2254 9322 9321 0
2254 9323 9322 0
2255 9324 4995 0
2255 9325 9324 0
1185 9326 6741 0
2256 9327 4998 0
2256 9328 9327 0
2256 9329 9328 0
2257 9330 5000 0
2257 9331 9330 0
1647 9332 7683 0
2258 9333 5003 0
2258 9334 9333 0
1188 9335 6746 0
2259 9336 5006 0
2259 9337 9336 0
2259 9338 9337 0
2260 9339 5008 0
2260 9340 9339 0
2260 9341 9340 0
2261 9342 5010 0
2261 9343 9342 0
1190 9344 6750 0
2262 9345 5013 0
2262 9346 9345 0
2262 9347 9346 0
2234 9348 5015 0
2234 9266 9348 0
2042 9349 8696 0
2263 9350 5018 0
2263 9351 9350 0
1193 9352 6755 0
2264 9353 5021 0
2264 9354 9353 0
2264 9355 9354 0
2265 9356 5023 0
2265 9357 9356 0
1652 9358 7694 0
2266 9359 5026 0
2266 9360 9359 0
1196 9361 6760 0
2267 9362 5029 0
2267 9363 9362 0
2267 9364 9363 0
2268 9365 5031 0
2268 9366 9365 0
2268 9367 9366 0
2269 9368 5033 0
2269 9369 9368 0
1198 9370 6764 0
2270 9371 5036 0
2270 9372 9371 0
2270 9373 9372 0
2271 9374 5038 0
2271 9375 9374 0
1895 9376 8297 0
2272 9377 5041 0
2272 9378 9377 0
1201 9379 6769 0
2273 9380 5044 0
2273 9381 9380 0
2273 9382 9381 0
2274 9383 5046 0
2274 9384 9383 0
1657 9385 7705 0
2275 9386 5049 0
2275 9387 9386 0
1204 9388 6774 0
2276 9389 5052 0
2276 9390 9389 0
2276 9391 9390 0
2277 9392 5054 0
2277 9393 9392 0
2277 9394 9393 0
2278 9395 5056 0
2278 9396 9395 0
1206 9397 6778 0
2279 9398 5059 0
2279 9399 9398 0
2279 9400 9399 0
2280 9401 5061 0
2280 9402 9401 0
2280 9403 9402 0
2281 9404 5063 0
2281 9405 9404 0
1208 9406 6782 0
2282 9407 5066 0
2282 9408 9407 0
2282 9409 9408 0
2283 9410 5068 0
2283 9411 9410 0
1661 9412 7715 0
2284 9413 5071 0
2284 9414 9413 0
1211 9415 6787 0
2285 9416 5074 0
2285 9417 9416 0
2285 9418 9417 0
2286 9419 5076 0
2286 9420 9419 0
2286 9421 9420 0
2287 9422 5078 0
2287 9423 9422 0
1213 9424 6791 0
2288 9425 5081 0
2288 9426 9425 0
2288 9427 9426 0
2235 9428 5083 0
2235 9267 9428 0
2290 9432 9430 0
2292 9433 5085 0
2292 9434 9433 0
1215 9435 6795 0
2293 9436 5088 0
2293 9437 9436 0
2293 9438 9437 0
2294 9439 5090 0
2294 9440 9439 0
1665 9441 7725 0
2295 9442 5093 0
2295 9443 9442 0
1218 9444 6800 0
2296 9445 5096 0
2296 9446 9445 0
2296 9447 9446 0
2297 9448 5098 0
2297 9449 9448 0
2297 9450 9449 0
2298 9451 5100 0
2298 9452 9451 0
1220 9453 6804 0
2299 9454 5103 0
2299 9455 9454 0
2299 9456 9455 0
2300 9457 5105 0
2300 9458 9457 0
1905 9459 8325 0
2301 9460 5108 0
2301 9461 9460 0
1223 9462 6809 0
2302 9463 5111 0
2302 9464 9463 0
2302 9465 9464 0
2303 9466 5113 0
2303 9467 9466 0
1670 9468 7736 0
2304 9469 5116 0
2304 9470 9469 0
1226 9471 6814 0
2305 9472 5119 0
2305 9473 9472 0
2305 9474 9473 0
2306 9475 5121 0
2306 9476 9475 0
2306 9477 9476 0
2307 9478 5123 0
2307 9479 9478 0
1228 9480 6818 0
2308 9481 5126 0
2308 9482 9481 0
2308 9483 9482 0
2309 9484 5128 0
2309 9485 9484 0
2309 9486 9485 0
2310 9487 5130 0
2310 9488 9487 0
1230 9489 6822 0
2311 9490 5133 0
2311 9491 9490 0
2311 9492 9491 0
2312 9493 5135 0
2312 9494 9493 0
1674 9495 7746 0
2313 9496 5138 0
2313 9497 9496 0
1233 9498 6827 0
2314 9499 5141 0
2314 9500 9499 0
2314 9501 9500 0
2315 9502 5143 0
2315 9503 9502 0
2315 9504 9503 0
2316 9505 5145 0
2316 9506 9505 0
1235 9507 6831 0
2317 9508 5148 0
2317 9509 9508 0
2317 9510 9509 0
2289 9511 5150 0
2289 9429 9511 0
2070 9512 8778 0
2318 9513 5153 0
2318 9514 9513 0
1238 9515 6836 0
2319 9516 5156 0
2319 9517 9516 0
2319 9518 9517 0
2320 9519 5158 0
2320 9520 9519 0
1679 9521 7757 0
2321 9522 5161 0
2321 9523 9522 0
1241 9524 6841 0
2322 9525 5164 0
2322 9526 9525 0
2322 9527 9526 0
2323 9528 5166 0
2323 9529 9528 0
2323 9530 9529 0
2324 9531 5168 0
2324 9532 9531 0
1243 9533 6845 0
2325 9534 5171 0
2325 9535 9534 0
2325 9536 9535 0
2326 9537 5173 0
2326 9538 9537 0
1916 9539 8354 0
2327 9540 5176 0
2327 9541 9540 0
1246 9542 6850 0
2328 9543 5179 0
2328 9544 9543 0
2328 9545 9544 0
2329 9546 5181 0
2329 9547 9546 0
1684 9548 7768 0
2330 9549 5184 0
2330 9550 9549 0
1249 9551 6855 0
2331 9552 5187 0
2331 9553 9552 0
2331 9554 9553 0
2332 9555 5189 0
2332 9556 9555 0
2332 9557 9556 0
2333 9558 5191 0
2333 9559 9558 0
1251 9560 6859 0
2334 9561 5194 0
2334 9562 9561 0
2334 9563 9562 0
2335 9564 5196 0
2335 9565 9564 0
2335 9566 9565 0
2336 9567 5198 0
2336 9568 9567 0
1253 9569 6863 0
2337 9570 5201 0
2337 9571 9570 0
2337 9572 9571 0
2338 9573 5203 0
2338 9574 9573 0
1688 9575 7778 0
2339 9576 5206 0
2339 9577 9576 0
1256 9578 6868 0
2340 9579 5209 0
2340 9580 9579 0
2340 9581 9580 0
2341 9582 5211 0
2341 9583 9582 0
2341 9584 9583 0
2342 9585 5213 0
2342 9586 9585 0
1258 9587 6872 0
2343 9588 5216 0
2343 9589 9588 0
2343 9590 9589 0
2290 9591 5218 0
2290 9430 9591 0
2345 9595 9593 0
2347 9596 5220 0
2347 9597 9596 0
1260 9598 6876 0
2348 9599 5223 0
2348 9600 9599 0
2348 9601 9600 0
2349 9602 5225 0
2349 9603 9602 0
1692 9604 7788 0
2350 9605 5228 0
2350 9606 9605 0
1263 9607 6881 0
2351 9608 5231 0
2351 9609 9608 0
2351 9610 9609 0
2352 9611 5233 0
2352 9612 9611 0
2352 9613 9612 0
2353 9614 5235 0
2353 9615 9614 0
1265 9616 6885 0
2354 9617 5238 0
2354 9618 9617 0
2354 9619 9618 0
2355 9620 5240 0
2355 9621 9620 0
1926 9622 8382 0
2356 9623 5243 0
2356 9624 9623 0
1268 9625 6890 0
2357 9626 5246 0
2357 9627 9626 0
2357 9628 9627 0
2358 9629 5248 0
2358 9630 9629 0
1697 9631 7799 0
2359 9632 5251 0
2359 9633 9632 0
1271 9634 6895 0
2360 9635 5254 0
2360 9636 9635 0
2360 9637 9636 0
2361 9638 5256 0
2361 9639 9638 0
2361 9640 9639 0
2362 9641 5258 0
2362 9642 9641 0
1273 9643 6899 0
2363 9644 5261 0
2363 9645 9644 0
2363 9646 9645 0
2364 9647 5263 0
2364 9648 9647 0
2364 9649 9648 0
2365 9650 5265 0
2365 9651 9650 0
1275 9652 6903 0
2366 9653 5268 0
2366 9654 9653 0
2366 9655 9654 0
2367 9656 5270 0
2367 9657 9656 0
1701 9658 7809 0
2368 9659 5273 0
2368 9660 9659 0
1278 9661 6908 0
2369 9662 5276 0
2369 9663 9662 0
2369 9664 9663 0
2370 9665 5278 0
2370 9666 9665 0
2370 9667 9666 0
2371 9668 5280 0
2371 9669 9668 0
1280 9670 6912 0
2372 9671 5283 0
2372 9672 9671 0
2372 9673 9672 0
2344 9674 5285 0
2344 9592 9674 0
2098 9675 8860 0
2373 9676 5288 0
2373 9677 9676 0
1283 9678 6917 0
2374 9679 5291 0
2374 9680 9679 0
2374 9681 9680 0
2375 9682 5293 0
2375 9683 9682 0
1706 9684 7820 0
2376 9685 5296 0
2376 9686 9685 0
1286 9687 6922 0
2377 9688 5299 0
2377 9689 9688 0
2377 9690 9689 0
2378 9691 5301 0
2378 9692 9691 0
2378 9693 9692 0
2379 9694 5303 0
2379 9695 9694 0
1288 9696 6926 0
2380 9697 5306 0
2380 9698 9697 0
2380 9699 9698 0
2381 9700 5308 0
2381 9701 9700 0
1937 9702 8411 0
2382 9703 5311 0
2382 9704 9703 0
1291 9705 6931 0
2383 9706 5314 0
2383 9707 9706 0
2383 9708 9707 0
2384 9709 5316 0
2384 9710 9709 0
1711 9711 7831 0
2385 9712 5319 0
2385 9713 9712 0
1294 9714 6936 0
2386 9715 5322 0
2386 9716 9715 0
2386 9717 9716 0
2387 9718 5324 0
2387 9719 9718 0
2387 9720 9719 0
2388 9721 5326 0
2388 9722 9721 0
1296 9723 6940 0
2389 9724 5329 0
2389 9725 9724 0
2389 9726 9725 0
2390 9727 5331 0
2390 9728 9727 0
2390 9729 9728 0
2391 9730 5333 0
2391 9731 9730 0
1298 9732 6944 0
2392 9733 5336 0
2392 9734 9733 0
2392 9735 9734 0
2393 9736 5338 0
2393 9737 9736 0
1715 9738 7841 0
2394 9739 5341 0
2394 9740 9739 0
1301 9741 6949 0
2395 9742 5344 0
2395 9743 9742 0
2395 9744 9743 0
2396 9745 5346 0
2396 9746 9745 0
2396 9747 9746 0
2397 9748 5348 0
2397 9749 9748 0
1303 9750 6953 0
2398 9751 5351 0
2398 9752 9751 0
2398 9753 9752 0
2345 9754 5353 0
2345 9593 9754 0
2153 9757 9023 0
2401 9758 5355 0
2401 9759 9758 0
1305 9760 6957 0
2402 9761 5358 0
2402 9762 9761 0
2402 9763 9762 0
2403 9764 5360 0
2403 9765 9764 0
1719 9766 7851 0
2404 9767 5363 0
2404 9768 9767 0
1308 9769 6962 0
2405 9770 5366 0
2405 9771 9770 0
2405 9772 9771 0
2406 9773 5368 0
2406 9774 9773 0
2406 9775 9774 0
2407 9776 5370 0
2407 9777 9776 0
1310 9778 6966 0
2408 9779 5373 0
2408 9780 9779 0
2408 9781 9780 0
2409 9782 5375 0
2409 9783 9782 0
1947 9784 8439 0
2410 9785 5378 0
2410 9786 9785 0
1313 9787 6971 0
2411 9788 5381 0
2411 9789 9788 0
2411 9790 9789 0
2412 9791 5383 0
2412 9792 9791 0
1724 9793 7862 0
2413 9794 5386 0
2413 9795 9794 0
1316 9796 6976 0
2414 9797 5389 0
2414 9798 9797 0
2414 9799 9798 0
2415 9800 5391 0
2415 9801 9800 0
2415 9802 9801 0
2416 9803 5393 0
2416 9804 9803 0
1318 9805 6980 0
2417 9806 5396 0
2417 9807 9806 0
2417 9808 9807 0
2418 9809 5398 0
2418 9810 9809 0
2418 9811 9810 0
2419 9812 5400 0
2419 9813 9812 0
1320 9814 6984 0
2420 9815 5403 0
2420 9816 9815 0
2420 9817 9816 0
2421 9818 5405 0
2421 9819 9818 0
1728 9820 7872 0
2422 9821 5408 0
2422 9822 9821 0
1323 9823 6989 0
2423 9824 5411 0
2423 9825 9824 0
2423 9826 9825 0
2424 9827 5413 0
2424 9828 9827 0
2424 9829 9828 0
2425 9830 5415 0
2425 9831 9830 0
1325 9832 6993 0
2426 9833 5418 0
2426 9834 9833 0
2426 9835 9834 0
2399 9836 5420 0
2399 9755 9836 0
2181 9837 9105 0
2427 9838 5423 0
2427 9839 9838 0
1328 9840 6998 0
2428 9841 5426 0
2428 9842 9841 0
2428 9843 9842 0
2429 9844 5428 0
2429 9845 9844 0
1733 9846 7883 0
2430 9847 5431 0
2430 9848 9847 0
1331 9849 7003 0
2431 9850 5434 0
2431 9851 9850 0
2431 9852 9851 0
2432 9853 5436 0
2432 9854 9853 0
2432 9855 9854 0
2433 9856 5438 0
2433 9857 9856 0
1333 9858 7007 0
2434 9859 5441 0
2434 9860 9859 0
2434 9861 9860 0
2435 9862 5443 0
2435 9863 9862 0
1958 9864 8468 0
2436 9865 5446 0
2436 9866 9865 0
1336 9867 7012 0
2437 9868 5449 0
2437 9869 9868 0
2437 9870 9869 0
2438 9871 5451 0
2438 9872 9871 0
1738 9873 7894 0
2439 9874 5454 0
2439 9875 9874 0
1339 9876 7017 0
2440 9877 5457 0
2440 9878 9877 0
2440 9879 9878 0
2441 9880 5459 0
2441 9881 9880 0
2441 9882 9881 0
2442 9883 5461 0
2442 9884 9883 0
1341 9885 7021 0
2443 9886 5464 0
2443 9887 9886 0
2443 9888 9887 0
2444 9889 5466 0
2444 9890 9889 0
2444 9891 9890 0
2445 9892 5468 0
2445 9893 9892 0
1343 9894 7025 0
2446 9895 5471 0
2446 9896 9895 0
2446 9897 9896 0
2447 9898 5473 0
2447 9899 9898 0
1742 9900 7904 0
2448 9901 5476 0
2448 9902 9901 0
1346 9903 7030 0
2449 9904 5479 0
2449 9905 9904 0
2449 9906 9905 0
2450 9907 5481 0
2450 9908 9907 0
2450 9909 9908 0
2451 9910 5483 0
2451 9911 9910 0
1348 9912 7034 0
2452 9913 5486 0
2452 9914 9913 0
2452 9915 9914 0
2454 9916 5488 0
2454 9918 9916 0
2236 9919 9268 0
2455 9920 5491 0
2455 9921 9920 0
1351 9922 7039 0
2456 9923 5494 0
2456 9924 9923 0
2456 9925 9924 0
2457 9926 5496 0
2457 9927 9926 0
1747 9928 7915 0
2458 9929 5499 0
2458 9930 9929 0
1354 9931 7044 0
2459 9932 5502 0
2459 9933 9932 0
